ply
format ascii 1.0
comment generated by OpenMVG
element vertex 681
property double x
property double y
property double z
property uchar red
property uchar green
property uchar blue
end_header
0.1042854285110126 0.0492379378843017 1.6034679741597579 255 255 255
0.2233514818856628 -0.3077463453356562 1.7084534767075281 255 255 255
-0.2473977498982348 -0.1494598182888448 1.7681126179237230 255 255 255
-0.0179883916932427 -0.2143375193640853 1.6631297495829798 255 255 255
-0.1436009183917674 0.1047068334004964 1.7005135675001193 255 255 255
0.3007519033283620 0.3099804812973673 1.6889886206277556 255 255 255
0.0799631179105845 0.0408745721361498 1.6039986293262805 255 255 255
0.0293970498341016 -0.2187687194199505 1.6566006238867088 255 255 255
-0.0685269109794323 -0.0557425933043210 1.6385832569069949 255 255 255
-0.1329137978887464 0.1099274182610010 1.6908481921823499 255 255 255
0.1305542280352267 0.0597569386060971 1.6090607704732929 255 255 255
0.1138181283666487 -0.0295832195960767 1.6078284331076860 255 255 255
0.0019290087585190 -0.3640238464191263 1.7209254167562267 255 255 255
-0.1766118151153898 0.1078357172099530 1.7427413370082794 255 255 255
0.1071931234797967 -0.4257414502643410 1.7451544839214725 255 255 255
0.0560721080666451 0.1994950287266410 1.6184290528482808 255 255 255
-0.1344856108368599 0.0785088488422876 1.6892016971243704 255 255 255
0.0317340522671299 0.0244405118949959 1.6018161676776126 255 255 255
-0.0822201607723939 -0.1115163984037247 1.6579611150676838 255 255 255
-0.3928331766063086 -0.2781776441875454 1.8567415642500305 255 255 255
-0.0986636511462192 0.1480566364652774 1.6695852099675370 255 255 255
-0.0219027480033169 -0.2134195184505968 1.6643118201620628 255 255 255
-0.2523246926269994 -0.1397967388501261 1.7707531186424270 255 255 255
0.0567758744053066 0.2191479188664693 1.6225920848092201 255 255 255
-0.0016945431667614 -0.3600825514001273 1.7189211240242193 255 255 255
0.1020254347833346 -0.4252545316193792 1.7481591792896662 255 255 255
0.0244221788155249 -0.0703252542125610 1.6107705520696818 255 255 255
-0.0863316198498425 -0.2633280907121162 1.7066596895535109 255 255 255
-0.0029137471991702 -0.3598567282707262 1.7164553938936686 255 255 255
-0.0904845755630145 -0.1168626286089510 1.6658987731643538 255 255 255
-0.1506588613074312 0.1077204852405294 1.7066093766913728 255 255 255
0.1528083308232137 0.2673567504639549 1.6340346578735006 255 255 255
-0.0556970621039889 -0.2298163197793218 1.6896919104756472 255 255 255
0.0424390035360271 0.0385592207864888 1.5994927960841212 255 255 255
-0.4448774439284742 -0.0947169129652119 2.1467762088944085 255 255 255
-0.0601323719945214 0.1501917116939513 1.6460500517276198 255 255 255
-0.0012027703755708 -0.3563887818108203 1.7154391954480308 255 255 255
-0.0829367996678623 -0.1088956139560921 1.6508154618220625 255 255 255
-0.1349993131823301 -0.4379958076478285 1.8034473516482705 255 255 255
0.0969551121588364 -0.4246863885573758 1.7480178264490636 255 255 255
-0.0372198033407120 0.1622813103825551 1.6380048753078127 255 255 255
-0.0245981171211658 0.1931589316562514 1.6408176348001122 255 255 255
0.1356800538003750 0.0774236312332032 1.6036559714504506 255 255 255
-0.0762632300918620 -0.2401294239733514 1.7040722358592530 255 255 255
-0.1340208987288119 0.0829918388097399 1.6865101931586457 255 255 255
0.1052824828923431 -0.3098564297451428 1.6704629898628220 255 255 255
0.1378216376801017 0.2630741706918771 1.6301098086091879 255 255 255
0.1307918741584840 -0.4023670817411127 1.7332940073130332 255 255 255
0.1247824651649073 0.2615348899208266 1.6263630103254718 255 255 255
0.2259746391109941 -0.2773793306673799 1.6957758783557673 255 255 255
0.1467091776844498 0.0837723250007137 1.6106263184584257 255 255 255
-0.0975725535055731 -0.2478791276290882 1.7096285175952530 255 255 255
0.0895424399748246 0.2475762200700775 1.6306100568381257 255 255 255
-0.0941116520002872 -0.2601784822880383 1.7104325693803266 255 255 255
-0.1891273809617244 -0.4580617018165214 1.8367554660996126 255 255 255
-0.0695710151532569 0.0030228769982028 1.6333597984398696 255 255 255
0.0863336483197435 0.2496045449948275 1.6279608765393261 255 255 255
0.0814247191026940 0.0395476949129947 1.5971249602264843 255 255 255
0.0366604698673941 0.2325157134148139 1.6343433322255405 255 255 255
-0.1804960205137419 -0.4513954980263095 1.8245107032431220 255 255 255
0.1387865637077870 0.2782971101006721 1.6345911614023854 255 255 255
-0.1174214897204930 -0.2484727152189291 1.7110709632859067 255 255 255
-0.1550174643212244 0.0820542155859728 1.7042616228571092 255 255 255
0.2290063602150745 -0.3795479178504395 1.7610048933946423 255 255 255
-0.1842580164049933 -0.2824659795118437 1.7463363269075478 255 255 255
-0.1702660367624359 0.1211805519726163 1.7352881696810165 255 255 255
-0.2217398065399756 -0.2910562270166190 1.7328702490993939 255 255 255
0.0950690200711714 0.0450231909225480 1.6021187964488381 255 255 255
-0.1381487607737726 -0.1148576664916514 1.6921135641443741 255 255 255
0.1181814235974237 0.0939464999144314 1.6035476844878092 255 255 255
0.1157238683861338 -0.3027543837517452 1.6703438525219811 255 255 255
-0.1709826714076143 -0.2924310186336257 1.7543121234641175 255 255 255
0.1310541667946453 0.2627764856657592 1.6295263424857549 255 255 255
0.0886575423333960 -0.4139287476460857 1.7413423901384288 255 255 255
-1.1337691557308716 -0.5504792571622312 2.5948563264359441 255 255 255
-0.0890429386782431 -0.0310311721786707 1.6472089637143903 255 255 255
-0.0380615668595007 -0.0869465339674722 1.6286108090681095 255 255 255
0.1367749334732705 -0.3929748670458868 1.7269023007360749 255 255 255
-0.0010579816809314 0.2273865241587359 1.6431793959087211 255 255 255
0.1444652712520635 0.0666314109798517 1.6096346267157211 255 255 255
0.0966138424070994 0.2542280632629130 1.6322478697073459 255 255 255
-0.1139748438619486 -0.2372238726222039 1.7075027966943879 255 255 255
-0.1814907892965858 -0.4451245953352522 1.8251869504861675 255 255 255
-0.0393430111993379 0.0397446185594967 1.6230212495224903 255 255 255
0.1336641206880140 0.2185148207636951 1.6236286008039822 255 255 255
0.2194973332918344 -0.2681845306740229 1.6897262710313776 255 255 255
0.2166226147214213 0.3093763979270158 1.6519192850708482 255 255 255
-0.2107775139302273 -0.0441205628293139 1.7565423472391528 255 255 255
-0.0278158416641879 -0.4404128808881785 1.7772679749153497 255 255 255
-0.0929105535284235 -0.0245596283838094 1.6449750505598912 255 255 255
-0.0265410121541460 0.2100763352661154 1.6451851358150684 255 255 255
0.2227370933608659 -0.2596819640390614 1.6871231681161303 255 255 255
0.0396339573797959 0.2495410249302619 1.6409087610687016 255 255 255
-0.1228880054847001 -0.2377960227529063 1.7113784745422813 255 255 255
-0.0145461845595801 -0.1961880485825028 1.6510837461945522 255 255 255
-0.0587749212914479 0.1374907709561636 1.6415669510172397 255 255 255
0.0079241908766745 -0.3361103693827531 1.7045852375578152 255 255 255
0.0372704718748991 0.2391571581327354 1.6356536435643103 255 255 255
-0.0145243568075329 -0.1960300945595199 1.6513116498989238 255 255 255
-0.2029714716606618 -0.4359179169911930 1.8190755523285147 255 255 255
0.1569188701175410 -0.3558196494558710 1.7067388296871677 255 255 255
-0.0928348915052567 -0.0187452628601100 1.6465726652081443 255 255 255
-0.0026527157026328 0.2340800071210419 1.6418650641936150 255 255 255
-0.1385162987733120 -0.2407931837421785 1.7061977414949734 255 255 255
0.0876874842535137 0.2766361471830381 1.6348882624275849 255 255 255
-0.5356600413747148 -0.2554056462286247 2.0409092521454846 255 255 255
0.0370441527387851 -0.0494353161333255 1.6166132681323966 255 255 255
-0.2141354860822734 -0.0388619341486990 1.7560072654474688 255 255 255
-0.0437057156795979 0.2215025243095903 1.6569375455687394 255 255 255
0.3868249723150545 0.3851406783205072 1.7709184222156418 255 255 255
0.0536391404800414 -0.1479739795195110 1.6184573635705197 255 255 255
-0.0978953868096924 -0.0183761435650002 1.6528710804477857 255 255 255
-0.1832605540695329 -0.2764364949083911 1.7575315709491990 255 255 255
-0.0226387522053267 -0.3235147654269822 1.7164605006022304 255 255 255
-0.0729785897238760 0.1932784521035016 1.6618209510626394 255 255 255
0.0101102743109414 -0.1662778872983448 1.6358776154232093 255 255 255
-0.0258961854304583 0.0187759446197752 1.6162358372961130 255 255 255
-0.1472964765291716 -0.4327869771718327 1.8027855021139489 255 255 255
0.0924513571476193 -0.2670985709286540 1.6595112050215859 255 255 255
0.0259923354541444 -0.0196371959982985 1.6109594931500930 255 255 255
0.1185264260655157 -0.2605956511019614 1.6628730784351895 255 255 255
-0.0941701467039317 -0.0114496479681236 1.6483656846131891 255 255 255
-0.5955054137924332 -0.3692544744189877 2.0288238280637807 255 255 255
0.0607650309208491 -0.3682206615638890 1.7095846367900787 255 255 255
0.0388547055514602 0.2456370975192011 1.6378173101006948 255 255 255
-0.0193752155495154 0.0272140756029315 1.6105107630488165 255 255 255
-0.2421845381735527 -0.2782902544385634 1.7256148444070971 255 255 255
-0.0956621808978596 -0.2153542927042440 1.7027431915964046 255 255 255
0.0594494122549780 0.1048550990045700 1.6065670843135054 255 255 255
0.0834244882502039 -0.2685232779509589 1.6608558906230688 255 255 255
0.2576516695986655 -0.0776227602318759 1.6710870621633749 255 255 255
0.0747062736096887 0.2637321806578037 1.6404190545542678 255 255 255
-0.0991057317429326 -0.0716594767467580 1.6537056404180890 255 255 255
-0.0254793846276788 0.0342787907365036 1.5995757492224594 255 255 255
-0.0948931732612708 0.0425955166828476 1.6511391773446815 255 255 255
-0.1436891653315295 0.1079104480336452 1.7082016303469036 255 255 255
-0.1011637838594059 -0.2126434400266701 1.7025953595848868 255 255 255
-1.1750594249183821 -0.2779069483316004 2.7099251071600827 255 255 255
0.0793602322165520 -0.1286130519324689 1.6102100765403320 255 255 255
0.1346081097492372 0.1010743240563218 1.5987143029302848 255 255 255
-0.0758112395764826 0.0548884642658462 1.6425389307126144 255 255 255
0.1826677485206843 0.3652924575614225 1.6665847648752643 255 255 255
0.0698330854627695 -0.2589675811104212 1.6529101710779412 255 255 255
-0.1302475570924657 -0.2204782106291252 1.7095257312774492 255 255 255
-0.0162415823195702 0.0816533730959092 1.6222479225375797 255 255 255
-0.5045585799817082 -0.2034732517279305 1.9453886465895596 255 255 255
0.0916958006842078 -0.2495017353498714 1.6473898328994367 255 255 255
0.0156596474565917 0.0980792263921597 1.6130266613615005 255 255 255
-0.0956834731031422 -0.3308895777086682 1.7464147062148168 255 255 255
0.1496395749579246 0.2451576524401886 1.6176112975898274 255 255 255
-1.1766294978636533 -0.2673712365006624 2.6911275466068676 255 255 255
-0.0056403028788609 0.0499274388121757 1.6073219017231928 255 255 255
0.1056271195740479 0.1344225323182576 1.6087249087140469 255 255 255
0.0871935804147750 0.0121474028256667 1.6058712407332256 255 255 255
-0.0966872926979363 0.0135434944259144 1.6503433763913156 255 255 255
0.0083951100436552 0.1846718173217183 1.6231804127554414 255 255 255
-0.3963128843744823 -0.3616056574339471 1.8948000106496190 255 255 255
-0.2135920152414716 -0.0468616942980091 1.7553634880826974 255 255 255
-0.3126623465495436 -0.0616584655385855 1.8289224170201184 255 255 255
0.0567150634225896 -0.2590215783931910 1.6564653229630630 255 255 255
-0.0699168713488211 -0.1887831581272316 1.6827791431794783 255 255 255
-0.0424635698109297 0.0751665743273560 1.6244611149291284 255 255 255
0.0027908872743538 -0.1451073199269581 1.6331676407312534 255 255 255
0.0906937746427452 0.3370450709001365 1.6773809026319213 255 255 255
0.0114236544419845 -0.2726746620089289 1.6764930099514659 255 255 255
0.0611216540828785 -0.1253264999096768 1.6149068850646857 255 255 255
-0.2944941564844317 -0.0479559205496243 1.8086418108145588 255 255 255
0.0410500991275473 0.0000096140548848 1.6082847525236581 255 255 255
-0.1065903772802609 -0.0913975091899386 1.6683709900850470 255 255 255
-0.0751651468524081 0.2845985502518191 1.7131237237680206 255 255 255
-0.2251516648400075 -0.0127840239327529 1.7707596013307254 255 255 255
-0.1671911242071380 -0.1212561546602541 1.7193315646644314 255 255 255
0.0371113300640506 0.3368829101290597 1.6678719988924815 255 255 255
-0.2997838997958356 -0.0466574647710439 1.8180556876903384 255 255 255
-0.1615031873849474 -0.1174072660566999 1.7094644911529897 255 255 255
-0.1055952043020479 -0.2039154326546471 1.7048892296639682 255 255 255
-0.5732092349385343 -0.3100261652617572 2.0193289441100077 255 255 255
0.0380912487221096 0.2017769342982512 1.6209587434745354 255 255 255
-0.0136888782416110 0.0965288010162167 1.6225290484422448 255 255 255
-0.2559952245711029 -0.2579638070460710 1.7330592261262208 255 255 255
0.0478053873381859 -0.2605159908035764 1.6589022395841428 255 255 255
0.2513927941959795 -0.0545978541219500 1.6570388232353861 255 255 255
-0.0726404576652154 -0.0488620315205395 1.6323855261969060 255 255 255
0.0925492606018908 0.2275631818839185 1.6221727264099164 255 255 255
-0.1798305349997668 -0.1193996116988640 1.6904221290753041 255 255 255
-0.2812879218048663 -0.0622501993439842 1.7971452771926484 255 255 255
-0.0139053684413481 0.1027074101668531 1.6233611529410512 255 255 255
-0.1106155699821556 -0.1935737643139641 1.7053793991315351 255 255 255
0.3002652870275033 0.3116096160482278 1.6842222662825317 255 255 255
-0.0294979690753221 -0.0473333441341424 1.6094754829247089 255 255 255
-0.2678379625481904 -0.4093574467257189 1.8419284636299691 255 255 255
-0.2163967566923385 -0.0277075530443848 1.7660820096525915 255 255 255
-0.1001292613642170 -0.3262269273425060 1.7521137623913710 255 255 255
-0.2188846260045553 -0.2347937192739573 1.7391876955173706 255 255 255
0.0695011137818900 -0.0059968178195446 1.6063457778652159 255 255 255
-0.0838080381996344 -0.1682795600374024 1.6804306426687465 255 255 255
0.0035205929990283 -0.1213649958661071 1.6317608512646131 255 255 255
-0.0822314931108180 -0.3056359345047468 1.7120823521911464 255 255 255
-0.0694516143767747 -0.0617698805674744 1.6405604824605331 255 255 255
-0.0755764190071377 -0.1571377906613816 1.6672389212828493 255 255 255
0.0094953902821145 0.0853827632587084 1.6083572896341822 255 255 255
0.1159106514138006 -0.3103404815372216 1.6706304300493757 255 255 255
0.1134789454408781 0.0134097503703248 1.6084215050744843 255 255 255
0.0092684904244371 0.0850769165135262 1.6079017715612760 255 255 255
-0.1091380027079430 -0.0810868987091975 1.6628753587072509 255 255 255
-0.1008469129918635 0.0351196900864433 1.6558482490715276 255 255 255
0.1165013440439438 -0.3109082312021474 1.6721349623182553 255 255 255
-0.0717888872390909 -0.2783189375657374 1.6969363114164546 255 255 255
-0.4166133797684573 -0.3280303739051180 1.8808243596491225 255 255 255
0.0889480076648165 0.1200799158965299 1.6071134562338529 255 255 255
-0.1149031847939324 0.1451491353596272 1.6982421387311790 255 255 255
-0.0634228741645277 -0.0218099969920286 1.6228879661653872 255 255 255
-0.2140290308324180 -0.2188114489465619 1.7464347485797600 255 255 255
0.0424104217849275 0.2203496552661165 1.6272997836993337 255 255 255
-0.3082945091485044 -0.3972228943262231 1.8407453797064872 255 255 255
-0.1491247052764379 -0.1847123808509317 1.7144264198258248 255 255 255
0.0256756822630091 0.0171845112812160 1.6007499853999270 255 255 255
-0.2413823632304489 -0.0290931351971804 1.7686250594924458 255 255 255
0.1138167729273176 -0.3073764673688907 1.6713814714742223 255 255 255
0.0981234167630287 0.1291416961913060 1.6083809695885838 255 255 255
0.2192843614271653 -0.2818433875538298 1.6941475225754692 255 255 255
-0.0576805653747989 -0.2643845577505861 1.6990835322458036 255 255 255
-0.0127516299541179 0.0843112270625175 1.6207629684380902 255 255 255
0.0366895237068252 0.2182926053092093 1.6275329025260816 255 255 255
0.0517483455843598 0.2714086531946195 1.6453460388894772 255 255 255
-0.0015320153922242 0.0903007740130455 1.6131391840010074 255 255 255
-0.3646589994342470 -0.0877722091349792 1.8547160042400304 255 255 255
-0.0635925007214470 0.1782692593935225 1.6528152269656866 255 255 255
0.1365489950503291 0.0632123869830606 1.6068436815865867 255 255 255
-0.0045492830277473 -0.3597933672539105 1.7219429554177093 255 255 255
0.0152668982932307 0.2685176824704871 1.6488572093318727 255 255 255
-0.2021820745372599 -0.4693013847558131 1.8624920500444062 255 255 255
-0.3782253918073943 -0.0941875282092935 1.8669863713826660 255 255 255
0.0209413272566873 0.2751284971489752 1.6499183676316176 255 255 255
0.0088177071513930 -0.2487862509511723 1.6543344993561213 255 255 255
-0.1212860219066339 0.0371815549549234 1.6740926650505794 255 255 255
0.0233645619118382 -0.3471762461126925 1.7110375801464275 255 255 255
0.0229617983489735 -0.3468963734411619 1.7105831052439591 255 255 255
0.0549290722147180 -0.0882193423767973 1.6245964512428543 255 255 255
-0.0678827550342595 -0.2902236472798551 1.7082683515100541 255 255 255
0.0644136707696655 0.3080217089533850 1.6525113727644536 255 255 255
-0.0107005909312186 -0.3585783227338211 1.7199975457442596 255 255 255
-0.0672951977170936 -0.1391847710402941 1.6569220327435539 255 255 255
-0.0253459700737996 0.1986743408245098 1.6420341096908417 255 255 255
-0.0326864741365307 -0.0002140507402468 1.6194041747250996 255 255 255
0.1822157400042049 0.3613299455542431 1.6646489342162130 255 255 255
-0.0716251485041088 -0.2862998342921629 1.6938974023343931 255 255 255
-0.1670516747063592 -0.4384048517985344 1.8157720472763452 255 255 255
0.1833146910787028 0.3614929079536762 1.6649977645199969 255 255 255
-0.2631512796653687 -0.1145637603429542 1.7816940851266643 255 255 255
-0.2247096173714650 -0.0083654084092554 1.7698223188273663 255 255 255
0.0540597381773865 -0.0781888853815065 1.6112329770974609 255 255 255
-0.0311773456750422 0.0897202190798281 1.6269535819870991 255 255 255
0.0518489064768692 -0.0734887074735686 1.5983528102350026 255 255 255
-0.5368355549301369 -0.2657484343146192 2.0475783689742286 255 255 255
-0.2294945142600353 -0.0017097994418886 1.7791855916088601 255 255 255
0.0948318719922236 0.3270752192310114 1.6530441638474873 255 255 255
-0.0555824037123979 0.0958167679324313 1.6348685779661143 255 255 255
0.0133228660145773 -0.3398898158091626 1.7048622533066573 255 255 255
0.0384841688906002 -0.2349109900629480 1.6484614289621367 255 255 255
0.0948318719922236 0.3270752192310114 1.6530441638474873 255 255 255
0.0148586579973807 -0.3406452995912418 1.7070811736116120 255 255 255
0.0229391940729427 0.1317402857460217 1.6175148957027432 255 255 255
0.1459971948954074 0.3545545501258552 1.6569338889067553 255 255 255
-0.0576853202876148 -0.0026635433962105 1.6298733155119818 255 255 255
-0.0476378634516101 0.1069184615398548 1.6313872490980701 255 255 255
-1.1577850893637436 -0.2480479317356545 2.7569405718032232 255 255 255
0.1546967528110508 0.2842663497267750 1.6392522901285111 255 255 255
-0.0911509297879302 -0.2951313021900198 1.7129468350358783 255 255 255
-0.0438045503394112 0.0036323334915403 1.6290245449242025 255 255 255
-0.0553928828170794 0.1032787323713219 1.6374286810782375 255 255 255
-0.0160958989941706 -0.0959881324976378 1.6277137771604488 255 255 255
-1.1909557150470005 -0.2579518636857815 2.7122811129321440 255 255 255
-0.5385797517942265 -0.2585050926419910 2.0433687877446256 255 255 255
0.3278448542605982 0.3583731142003956 1.7127798639116305 255 255 255
-0.3068755966220995 -0.4098168203467599 1.8540687012746451 255 255 255
0.1622953986666913 0.3758678382216302 1.6692115176100191 255 255 255
0.1310365338924354 0.1911949489207800 1.6195255099884056 255 255 255
0.0734259871815681 0.3363528645948012 1.6607508515754148 255 255 255
0.1220666294904228 0.1878074034782938 1.6174342075155628 255 255 255
-1.1613686052283365 -0.2396253228424203 2.7595731632114453 255 255 255
-0.0031661359808478 -0.3280893368673368 1.7003230588472005 255 255 255
0.1589250014463007 0.3783727179204828 1.6692538795292762 255 255 255
-0.0095009811831060 -0.0779048809548927 1.6141356626791992 255 255 255
0.0037490211058808 -0.3292835322174922 1.7096347661651512 255 255 255
0.1589250014463007 0.3783727179204828 1.6692538795292762 255 255 255
-0.0091345523557936 -0.0778663730588066 1.6145891101958560 255 255 255
-0.1914690952345888 -0.0638138873328056 1.7449740232432880 255 255 255
-0.0257600197635388 0.2265586569141803 1.6500945785729890 255 255 255
0.0660380740479100 0.3462894009150337 1.6668272721546480 255 255 255
-0.0258213361841046 0.2266110784722651 1.6499752959999008 255 255 255
0.0611385975692576 0.3480134561781066 1.6664419419262595 255 255 255
-0.0689261542227532 0.0143748096545385 1.6325516393961723 255 255 255
0.0433755488990460 0.3423052008212152 1.6671562146905941 255 255 255
0.0442354519698875 0.3425726207876674 1.6686191813320221 255 255 255
0.0380628864901386 0.3409760234836848 1.6735133018194110 255 255 255
0.0397700011345196 0.2594264588169260 1.6426336681874871 255 255 255
-0.0133278339843082 0.0446304782273677 1.6065403860081058 255 255 255
-0.0110594117945095 -0.3179842299726759 1.7097515472974893 255 255 255
0.3767588976194496 0.3989897621948321 1.7621698797503245 255 255 255
0.0070277474272166 0.0535778998900346 1.6078936944471929 255 255 255
0.1371509153831100 0.4776817059113310 1.7198373550748478 255 255 255
-0.0171721159791678 -0.3132479949607143 1.7101727731637288 255 255 255
0.0070304284138937 0.0539054998200808 1.6082491064135280 255 255 255
0.0730384081772697 -0.2565473189895573 1.6542712175546963 255 255 255
-0.0579612052402711 -0.3016970093625588 1.6939008781572853 255 255 255
0.0214992247073707 0.2636915848126362 1.6459084674844895 255 255 255
-0.0488188796692480 -0.3030982453876198 1.7071011880528706 255 255 255
0.3375497343880572 0.4002663650491853 1.7269448775081155 255 255 255
0.0099802770161919 -0.2160433405549295 1.6539026663828793 255 255 255
0.0390051644932505 0.2765147680527464 1.6477166224254831 255 255 255
-0.1240646677567016 0.2053899383562505 1.7099799200549874 255 255 255
-0.0040864554554560 -0.2219250959067344 1.6651920842671748 255 255 255
-0.0284042085390178 -0.2279013571459795 1.6738911019762019 255 255 255
0.1659360081751043 0.3383890902441934 1.6530323051347680 255 255 255
-0.0191314474728438 0.0668326299935339 1.6217164840608826 255 255 255
-0.0234735922010940 0.0666382312789280 1.6227816384432288 255 255 255
-1.1799720468443615 -0.2713952118115147 2.7050001344011347 255 255 255
-0.0979650789814583 0.0370106711749991 1.6528084866045507 255 255 255
0.1414570950810333 0.3517112415769825 1.6604572112674434 255 255 255
0.0041806121667272 -0.1967907377401424 1.6437737475927845 255 255 255
-0.0894111054316809 0.0430028728409117 1.6428449635727829 255 255 255
-0.0775144644405229 -0.2400457752531322 1.7037668799715855 255 255 255
0.1771007243089444 0.3674610404316845 1.6671229197397042 255 255 255
-0.1112799431881511 0.0361476170039130 1.6640147831267171 255 255 255
-0.0147663106730286 -0.2011064605193716 1.6436501871927309 255 255 255
-0.0058649709740156 -0.2022184181585174 1.6554649287772845 255 255 255
-0.0223067886094923 -0.2097355326988157 1.6612287944055215 255 255 255
-0.0063187145558853 -0.1983076648640244 1.6511546028564963 255 255 255
0.1885674144981943 0.3843020388435577 1.6742670334891805 255 255 255
-0.2195818396608683 -0.0183192700425231 1.7705399333470218 255 255 255
-0.0008386702518256 -0.1759013674716949 1.6465219466685115 255 255 255
0.0687940188837374 0.3502213901019001 1.6650861016153762 255 255 255
0.0562136200182030 0.3502410847794555 1.6682231808027281 255 255 255
0.0018099069353105 -0.1763585920013213 1.6494307701807172 255 255 255
0.0882062707648736 0.3782738119903778 1.6751970293773135 255 255 255
-0.0041788825810195 -0.1733071757127061 1.6487906472809191 255 255 255
0.1259137512586394 0.1512252839008685 1.6100054993413431 255 255 255
-0.0075193319453990 -0.1732829472657014 1.6457076750525663 255 255 255
0.0625993667549915 0.3915188408809615 1.6856423892003631 255 255 255
0.0415195518546286 -0.1420918393878651 1.6191884500181333 255 255 255
0.0028133879868525 -0.1487509209381807 1.6324645298318363 255 255 255
-0.1870346980615363 -0.2159088408013687 1.7397424673602060 255 255 255
-0.1782023572265945 -0.2171456198157476 1.7545495289194122 255 255 255
0.0048023918585867 -0.1175257424241315 1.6327157303894846 255 255 255
0.0641376586991061 -0.0817704419813892 1.6129785152753475 255 255 255
-0.0641430833185874 0.1467749355614139 1.6471831172288076 255 255 255
-0.1584772149141584 0.0779874561815396 1.7103420841485992 255 255 255
-0.0739735483338637 -0.2721516616226780 1.7143984102305938 255 255 255
-0.2678672899552741 -0.1081238449895228 1.7808105643022198 255 255 255
0.0118271424450817 0.1815126967703969 1.6222982312524905 255 255 255
-0.0739735483338637 -0.2721516616226780 1.7143984102305938 255 255 255
-0.1925914941609142 -0.0710690648402060 1.7448614030755110 255 255 255
-0.1585162359494016 0.0779640849825937 1.7101949176733262 255 255 255
-0.0227298749301269 0.1713769604147142 1.6356703968271622 255 255 255
0.1570560768971019 -0.3475268057023944 1.7001422103142134 255 255 255
0.1410069173693624 -0.3887261459212403 1.7222271956381048 255 255 255
0.0400404057808774 -0.1147243140931372 1.6233247045039458 255 255 255
0.1728990410210284 -0.0103213845042487 1.6240964940922165 255 255 255
-0.2251742077257216 -0.0001198270348141 1.7771875970905791 255 255 255
0.1363227995011732 0.2393610959564466 1.6260579183211457 255 255 255
0.1493322985122590 -0.3704679859373199 1.7107124371619618 255 255 255
0.2089644157826954 0.2451685377388599 1.6380374085821350 255 255 255
-0.0610331588620276 -0.4265223740698700 1.7887420481975862 255 255 255
-0.3982579432709843 -0.3333032259018843 1.8804521924732109 255 255 255
-0.0379280698239714 0.0125991280814819 1.6195984065924631 255 255 255
-0.0014777543835172 0.1133739519053031 1.6146231208086277 255 255 255
0.0880064514435052 -0.3883442160735677 1.7193622765281413 255 255 255
-0.0883060333471336 0.1218497155021356 1.6557200275538495 255 255 255
0.0050457506788661 -0.0708168495378886 1.6152374441396686 255 255 255
-0.3350865372368820 -0.3958816828202928 1.8606032096384153 255 255 255
0.2096839217161014 0.2831898215818749 1.6427249009757072 255 255 255
-0.3982579432709843 -0.3333032259018843 1.8804521924732109 255 255 255
-0.5280545970763691 -0.2705424076546563 2.0469883946825296 255 255 255
0.1644438934699551 0.1813736532384972 1.6186894724396119 255 255 255
0.1511978413339457 -0.3619594858660432 1.7055228304471108 255 255 255
-0.0223433031019146 -0.0656477066318764 1.6244849332474789 255 255 255
-0.1511011999685723 0.0442886269540094 1.6985277774342753 255 255 255
-0.0996555696247002 -0.2888755068553546 1.7171279264156389 255 255 255
-0.0432100013025568 0.1492894619798773 1.6386146621210176 255 255 255
-0.3343272266563047 -0.3960025197727834 1.8634655676000962 255 255 255
-0.0144595778512869 0.1962546148649177 1.6338563857175279 255 255 255
-0.0013407668782098 -0.3790490188748827 1.7324931630187392 255 255 255
-0.4201909284242552 -0.3427319041436985 1.9069768865118077 255 255 255
-0.1184074567124360 -0.0142359940258909 1.6689504186126507 255 255 255
0.0088253349355726 0.0300855214008238 1.6087299087801903 255 255 255
0.0429093037198925 -0.0366815150595525 1.6045042768286792 255 255 255
-0.0837597313817199 -0.2619959162869605 1.7001131773146509 255 255 255
0.1687631589384889 0.2479738430491385 1.6303381215013559 255 255 255
-0.0100211016539147 -0.2332771219226955 1.6651575957250637 255 255 255
-0.4549020181642840 -0.1266704209210435 2.0946859375410138 255 255 255
0.0154201273562115 0.0540088566215104 1.6075604496815314 255 255 255
-0.1642916679412175 -0.4342321472698999 1.8056760374516461 255 255 255
-0.2604810135685223 -0.0111038291089803 1.7982090300145659 255 255 255
-0.1158431471588791 -0.0214343858811177 1.6692549396986356 255 255 255
0.0024847043891433 0.1813263916283870 1.6255998730286678 255 255 255
0.1849315512547903 0.2925613303729023 1.6407539661873924 255 255 255
-0.1618624892059325 0.0400668768221645 1.7125007052452168 255 255 255
0.0060181370284620 -0.3683239532670022 1.7867099301814215 255 255 255
0.0022676267995149 0.1812789518366854 1.6250430963487039 255 255 255
-0.0351840878157776 -0.2278190318167814 1.6728087077174136 255 255 255
0.1886995666311899 0.3003362633734783 1.6466655643052071 255 255 255
-0.4273623031135745 -0.4193016463937729 2.2338065995579521 255 255 255
-0.1668880209291678 0.0443696536420204 1.7151590538693973 255 255 255
0.0141338743203201 -0.0413366624328282 1.6115478269359302 255 255 255
-0.3521030004952211 -0.0092117807130087 2.2132623696092972 255 255 255
0.3088367597268594 0.2445397272487441 1.6725359137582723 255 255 255
-0.0382427720631275 0.0358951690800255 1.6196902912824487 255 255 255
0.0032868185552421 -0.2017090106006836 1.6478018443199391 255 255 255
0.0704164842554390 0.2660533876483437 1.6413255337114243 255 255 255
-0.0899591354729713 0.0847722311460422 1.6519947684720111 255 255 255
-0.5313844132890450 -0.2271570333868624 1.9875266206696938 255 255 255
0.0001568534116124 -0.0437711544092064 1.6151553198433559 255 255 255
-0.0602098511615477 0.0394932961847788 1.6320928621891688 255 255 255
-0.1403367400325654 -0.1762643419431844 1.7066520602649013 255 255 255
-0.1467945500522256 -0.2662239022067727 1.7533416895919283 255 255 255
-0.0227764995268232 0.1150777503931333 1.6313914767047637 255 255 255
-0.2849162531605823 -0.0869735742414923 1.7926261248658435 255 255 255
-0.2805261662024573 -0.0712607121430092 1.7968835344451539 255 255 255
-0.0398869151052665 0.2236175143540053 1.6523181748316718 255 255 255
-0.0144782659639343 -0.3676410491391391 1.7311979883347226 255 255 255
0.3025313302384098 0.2440858478950684 1.6804635812046063 255 255 255
0.0958426337796988 0.0804699465639006 1.6012591005106325 255 255 255
-0.0789851236661874 0.0224126238655099 1.6404517774664906 255 255 255
-0.0395190192241669 0.2235689193374236 1.6531640361545896 255 255 255
-0.0396455306548747 0.1725293203838863 1.6426012256200639 255 255 255
-0.2426979739351688 -0.2854428844250817 1.7301684920804998 255 255 255
-0.0601729549671998 0.0488822372830083 1.6326408015442102 255 255 255
0.0748806414336908 0.2788640241229771 1.6441343442372929 255 255 255
-0.0260190314344866 -0.3701895384237707 1.7184422364851009 255 255 255
-0.0233188663969926 -0.3346401839026316 1.8023324362381250 255 255 255
-0.1852771690419822 -0.2664529166998831 1.7439133759779364 255 255 255
0.0649453370353962 -0.0106078103931020 1.6074633075819145 255 255 255
-0.1195545624929647 0.0796971460709121 1.6716679208535985 255 255 255
-0.0609160747424131 0.0189854489012379 1.6308850061061899 255 255 255
-0.1054303160792350 0.0335707534480776 1.6553748018578558 255 255 255
-0.0675930564209641 0.1051272530678771 1.6421647411967117 255 255 255
-0.1783833334342717 -0.1721886697122849 1.7241359346601088 255 255 255
-0.0410226309660464 0.1804119129757575 1.6437803369883526 255 255 255
-0.0648912762193134 0.0542124315895331 1.6373069378202270 255 255 255
-0.1247718781888093 0.0794365449520378 1.6792898907389304 255 255 255
-0.0960775838458914 -0.2199744258993599 1.6997120969789650 255 255 255
-0.0207130670784309 0.0765861248108943 1.6220756681918924 255 255 255
0.2079416487104774 -0.2083644989470872 1.6607315734932582 255 255 255
-0.1032158943148791 0.0395389626538501 1.6604794386498818 255 255 255
-0.1387364017339453 -0.0196644574047492 1.6947804924395815 255 255 255
-0.0409769934014138 0.1802026300300444 1.6444474904473498 255 255 255
-0.0210074424045837 -0.1646574951742378 1.6487091429789833 255 255 255
0.0575060761316653 -0.0584551183630746 1.6087617503591836 255 255 255
-0.0951647712715849 -0.0706610941128585 1.6484905179013460 255 255 255
0.0867146345826471 0.1236744373604218 1.6066154721488541 255 255 255
-0.1223815089911999 -0.3462936665806144 1.7568909421707277 255 255 255
-0.0214761202927237 -0.1646076936207498 1.6479648190190217 255 255 255
-0.0024600871997177 0.2044210873205236 1.6353168912632190 255 255 255
0.0160012683975800 -0.1719211427379001 1.6439561856233769 255 255 255
0.0005690461400367 -0.0248805729628136 1.6071601752690818 255 255 255
-0.1389045737134185 -0.0195995554481906 1.6938588756743302 255 255 255
-0.0056001623634703 0.1438617201841147 1.6208804548091251 255 255 255
-0.0459803532497187 0.0690922157598853 1.6258817742134213 255 255 255
0.1150548103080319 -0.0361306968298129 1.6106598788394750 255 255 255
-1.1590979524514207 -0.2894559784352886 2.7245200497251281 255 255 255
-0.0782077394158421 0.0530366608320787 1.6411142753981980 255 255 255
0.0210215257233704 -0.0160574974329524 1.6089341021811230 255 255 255
0.0185682006831966 0.2289438406107039 1.6309003221283200 255 255 255
-0.1169326630639180 0.0364752334014334 1.6688657747191828 255 255 255
0.0663900189741320 -0.2503257470429140 1.6477241999794796 255 255 255
0.0715306813561941 0.1809136129109294 1.6321719806715238 255 255 255
-0.0875864738226497 -0.0586174933553852 1.6458366172547518 255 255 255
-0.1088910038545140 0.0405602288608283 1.6640025052444640 255 255 255
-0.0065314877959681 0.1509363726987374 1.6222757585472507 255 255 255
0.1469944606368078 -0.2374499835212770 1.6460705598955887 255 255 255
0.0483636358942387 -0.2521348114930448 1.6525703644046235 255 255 255
-0.2807989994021612 -0.0788176695059440 1.7943725358038320 255 255 255
-0.1066046861046578 -0.1962736158059983 1.7044935224145252 255 255 255
0.1600071478459923 -0.2325989510934460 1.6456910631345194 255 255 255
-0.0198338125661712 0.1452284051183067 1.6323485177578865 255 255 255
0.0239527554928450 -0.0092119647016218 1.6110076218602285 255 255 255
-0.1615980074706492 0.0107536981530423 1.7140161958070268 255 255 255
0.0618841654215367 0.1815214436680154 1.6130499969920440 255 255 255
0.0996458110495035 -0.0353131238444794 1.6111810060956868 255 255 255
0.2846515755339661 0.0967558252795323 1.6663078681986931 255 255 255
-0.0201290793016248 -0.2988445680872268 1.6952134578133438 255 255 255
-0.3967391199610799 -0.3548898785410787 1.8935008022907325 255 255 255
-0.4167070868127952 -0.3508096916087579 1.9120096686146606 255 255 255
-0.1009633110429144 0.0266451702910440 1.6501600333043900 255 255 255
0.0214086632912560 0.1677263512826989 1.6205008807053314 255 255 255
-0.1615760314361657 0.0107907602369317 1.7133116359985463 255 255 255
-0.0283079956646920 -0.0824982572257444 1.6282153854523478 255 255 255
-0.4262121333401611 -0.3435590172542334 1.9114176890418864 255 255 255
0.1763185289861397 0.2328746525317651 1.6299100052184654 255 255 255
-0.4137554838785638 -0.3470863846206489 1.9028344451194219 255 255 255
-0.0157524301619004 0.0910519578069846 1.6231994149027107 255 255 255
0.0907712976816227 0.0425808641538571 1.6048756956308645 255 255 255
-0.1129732002482622 0.1128976097963563 1.6824153353676290 255 255 255
-0.0782309359903641 0.2828305128260946 1.6975796004677135 255 255 255
0.1217540346937211 0.3242698535701138 1.6472351292812903 255 255 255
-0.0219358166039669 0.0835378186073454 1.6273375821269298 255 255 255
-0.0716216601094098 0.0702079170809020 1.6402053048717842 255 255 255
0.0184339051620939 -0.2594990818359739 1.6668930495503247 255 255 255
0.2843432549697578 0.4480030467545675 1.7101317740402355 255 255 255
-0.4125957177105515 -0.3471286330649681 1.9058349612879510 255 255 255
-0.3010789570205840 -0.0518797327597629 1.8203039628288606 255 255 255
-0.0566464750043445 -0.0082570761019795 1.6263991538876041 255 255 255
-0.0995449931861413 0.0534800674639884 1.6553712202939856 255 255 255
0.0418397368117645 0.1875978281505335 1.6153151618846908 255 255 255
0.0834656582391517 0.3961001417914946 1.6820246207219234 255 255 255
-0.0776683914782247 0.0630844579256897 1.6418231935497252 255 255 255
0.0418397368117645 0.1875978281505335 1.6153151618846908 255 255 255
0.0498429745825717 -0.2459566985835700 1.6489114075643099 255 255 255
-0.0584620858064839 -0.2886260072361300 1.7033880945971445 255 255 255
-0.0530798868931319 -0.6067411153631536 1.9850579792193614 255 255 255
-0.0488806554651130 -0.0632425120972847 1.6257233255781922 255 255 255
0.0114044399765000 -0.2521953098362241 1.6661896042382038 255 255 255
-0.1329015842298393 0.0379417141160508 1.6834337568501629 255 255 255
-0.0304141888280377 -0.2401094522428911 1.6323929899333205 255 255 255
-0.0006203101528637 0.1002099479251387 1.6136127806475355 255 255 255
0.1066127324923126 0.0077947394109094 1.6075784968089311 255 255 255
-0.0688891829894437 -0.6217165537836274 2.0223186509992579 255 255 255
0.0628034408004135 -0.0045354784944792 1.6099085527343775 255 255 255
-0.2235033232848560 -0.0433966008054440 2.1852988922283352 255 255 255
-0.5054977389349192 -0.3098445450550283 2.0815937816655321 255 255 255
-0.1033745064626933 -0.2819165807246483 1.7050602364705743 255 255 255
0.0297288329855049 -0.0134726600115104 1.6084183479410628 255 255 255
0.0886285917212459 0.0106109492336017 1.6064840839316168 255 255 255
-0.1021595544845212 -0.6219094671436695 2.0449591739523556 255 255 255
-0.1585651774074582 0.0453876520857713 1.7106732967984801 255 255 255
-0.0334821477691158 0.1189492101124524 1.6339107055495041 255 255 255
0.1115292586283339 -0.3986439397958748 1.7251697239066024 255 255 255
-0.0143585068321009 -0.2269270593486898 1.6688051897457263 255 255 255
0.0007264962808292 -0.3708094261882273 1.7297696476045927 255 255 255
-0.0374100458362854 0.1082485596782839 1.6291942246920472 255 255 255
0.1510980980788097 0.2049472500428834 1.6208795647843941 255 255 255
-0.2079759360524394 -0.0262783361948379 2.2100057359570981 255 255 255
-0.0121859190854890 -0.3607584832279498 1.7246017931187294 255 255 255
-0.0059269088886449 -0.1053306994085305 1.6256219386262145 255 255 255
-0.0399283059249855 0.1383958926972268 1.6351466210358980 255 255 255
0.0681509027663642 -0.1772004379195318 1.6280276360323411 255 255 255
-0.1064628135478147 -0.0489144258823288 1.6628323045190354 255 255 255
-0.0217459283259346 -0.2046671943906755 1.6604636492529949 255 255 255
0.1766269741301855 0.2102996034884796 1.6244932828986609 255 255 255
-0.0207645245822523 -0.2051970262015708 1.6615046865045648 255 255 255
-0.3560288779546792 -0.0232809775879402 2.1974022981050663 255 255 255
0.0712675937766932 0.0503339214404766 1.5980048551627670 255 255 255
-0.1594939877492446 0.0709508911223549 1.7104381215155657 255 255 255
-0.0266884707187787 0.1842829821020718 1.6391408340422746 255 255 255
0.0100762195314351 -0.3260250116374452 1.6992258853820197 255 255 255
-0.0345201313775274 -0.1992135230327239 1.6633002243958104 255 255 255
-0.0198354664523482 0.1935123737410981 1.6377476539278222 255 255 255
-0.0829510916003789 -0.2243669484148665 1.7067067290730034 255 255 255
-0.0095263071295321 -0.0969917231200841 1.6300070776959461 255 255 255
0.0495657153061246 0.2275849335837740 1.6435253049808982 255 255 255
-0.0208462841382045 0.2085819617637625 1.6411200213399681 255 255 255
-0.0102066153018386 -0.0773835388966867 1.6278000591284743 255 255 255
0.0199560028509284 0.2429225628695335 1.6393202539171601 255 255 255
-0.1290844247325685 -0.3470171353483316 1.7631703309973106 255 255 255
-0.4912676839097661 -0.3320192280638542 2.1148930451468866 255 255 255
0.2400424884716385 0.5804841651928014 1.8017481394393366 255 255 255
0.1625938174250372 0.5746774503275596 1.8214341119367632 255 255 255
-0.1496331884099549 -0.0948166858923515 1.7124553494175199 255 255 255
-0.0210231100536233 -0.0211093609746047 1.6116175712444882 255 255 255
-0.6913310418030407 -0.3912300348848895 2.2610999449294544 255 255 255
0.0300388380380169 0.2856901110209571 1.6507494273635308 255 255 255
-0.0094267618876085 0.1201369261229551 1.6216336975269199 255 255 255
-1.1895660158219989 -0.2519294951301068 2.7292307128258795 255 255 255
-0.0671375514644201 -0.4026321454877201 1.7749063644337868 255 255 255
-0.1569055966577142 -0.1994886666384426 1.7185528785601449 255 255 255
0.0023156866389146 -0.3748789776180853 1.7199739309978006 255 255 255
-1.1463395564108405 -0.2046613432422838 2.7854523813816052 255 255 255
-0.2490511134144597 0.0485676418024461 2.1941780110902092 255 255 255
-0.0648239197216669 0.1273155204352827 1.6442535016106401 255 255 255
-0.0075810669261771 -0.0862315174454535 1.6280214367552335 255 255 255
-0.0130547496580001 0.1422068463833814 1.6251610288788576 255 255 255
-0.0655185784098068 -0.0957427299171143 1.6462398390222379 255 255 255
-0.1518365621999587 -0.1795217541378245 1.7300320966557363 255 255 255
-0.0480831670820955 -0.1242673959055956 1.6533340516820028 255 255 255
-0.0952826298323971 0.1180059806471953 1.6624674314200474 255 255 255
-1.1719814739518586 -0.2281243632070450 2.7486716651919334 255 255 255
-0.2989527564526757 -0.0566741365899056 1.8155843636875630 255 255 255
0.0866486941284516 0.2387969073870956 1.6318027567359483 255 255 255
-0.0139834169796534 0.1548403859607256 1.6292345971761095 255 255 255
0.0037392897211690 0.1697445988387504 1.6223401702086768 255 255 255
0.1342651287492970 -0.2432433836622670 1.6468027134054624 255 255 255
-0.0145809429190326 -0.0537130678859251 1.6174855371884749 255 255 255
0.1277663290693075 0.3961065168171077 1.6797953380225670 255 255 255
0.2021861561692451 -0.2297869188254326 1.6663484516506988 255 255 255
-0.1703209836610586 -0.1292720486566971 1.7189529451061907 255 255 255
0.1277663290693075 0.3961065168171077 1.6797953380225670 255 255 255
-0.0679081551228977 0.1477409537191656 1.6491771580227106 255 255 255
-0.0289394459014600 -0.2831232184728049 1.6967271066494152 255 255 255
0.1198192406273687 0.2291722074217822 1.6206156164509413 255 255 255
0.0860916946638635 0.2388175963751272 1.6286650694711682 255 255 255
0.0522010164899648 0.1156976550727520 1.6024910867775672 255 255 255
0.1394529750862351 0.4142953720590422 1.6888728922461766 255 255 255
-0.0679081551228977 0.1477409537191656 1.6491771580227106 255 255 255
-0.0229674538104757 -0.2345542606859262 1.6238241776539089 255 255 255
0.0107351052201070 -0.0145358480675756 1.6063057103428116 255 255 255
0.1394529750862351 0.4142953720590422 1.6888728922461766 255 255 255
-0.0181586112394994 0.1788999148875839 1.6340748479827385 255 255 255
-0.4090638067555400 -0.5954593131807584 2.4620809283602445 255 255 255
-0.0257618903239444 -0.0160063074265008 1.6179718456717944 255 255 255
0.0459139744463146 0.1980646288132675 1.6194728376145686 255 255 255
0.1337576342477493 0.2694210275664171 1.6304539697368787 255 255 255
-0.0259609843339260 -0.0164349747774623 1.6179380663009053 255 255 255
0.0341278341608164 -0.2188925904870242 1.6446264038014586 255 255 255
0.0459139744463146 0.1980646288132675 1.6194728376145686 255 255 255
-0.0988719262886375 -0.0627781345009615 1.6639152358460292 255 255 255
-0.2691535161833522 0.0798036866814880 2.2104174103911598 255 255 255
0.0030337502428888 0.0207600015720515 1.6097789830223592 255 255 255
-0.3085781210672355 0.0094032880992082 2.1942103531382759 255 255 255
-1.1452630983166427 -0.4700764704608468 2.5694724501670763 255 255 255
0.0996624431236801 0.2817387829525545 1.6372930658528579 255 255 255
-0.0674455247086768 0.1781940933576848 1.6560451734772001 255 255 255
-0.0264617086654558 -0.2156042399920025 1.6687751920924658 255 255 255
0.0183708587887925 0.2567469498687538 1.6437947914970521 255 255 255
-0.0674455247086768 0.1781940933576848 1.6560451734772001 255 255 255
0.0362115607628688 -0.2345820074884749 1.6518451230993649 255 255 255
-0.0630173739786041 0.0868622900729788 1.6381136931759539 255 255 255
-1.1702263959327703 -0.2863757989237781 2.6725767716548963 255 255 255
-0.2266367658795217 -0.2925332961500450 1.7335866810619838 255 255 255
0.1055439506631318 -0.4218174215710627 1.7455838088796582 255 255 255
0.1341637391893454 0.1102215883862003 1.6083848928535176 255 255 255
0.0814135805856234 0.2861217066495973 1.6364762426283039 255 255 255
-0.4808595912337182 -0.5841381869527460 2.5303819745325518 255 255 255
-0.0630173739786041 0.0868622900729788 1.6381136931759539 255 255 255
0.1963366952680877 0.3498244887269865 1.6640854487639511 255 255 255
0.0189083741067960 0.1086709457714696 1.6125690963011445 255 255 255
-0.4442377376282735 -0.5882051326526756 2.5869610268977263 255 255 255
-0.1740878237115523 0.1218857402148805 2.2064175386620359 255 255 255
-0.2132962071374206 -0.0461520675781990 2.1702626563557290 255 255 255
0.1092058214109687 -0.1802377429568659 1.6644316041129374 255 255 255
-1.1737411692664510 -0.2702890044352213 2.7092698695223620 255 255 255
-0.1882076682785496 -0.4634365401866516 1.8369585979123868 255 255 255
-0.2129134521713552 -0.0460957743610011 2.1710582332110748 255 255 255
0.1203914455653293 0.2837058181899434 1.6367560420737888 255 255 255
-0.4529454759324207 -0.5559992714936693 2.6188050946242143 255 255 255
0.0751175423000814 0.3187941311697608 1.6571460843587968 255 255 255
0.1202782940997889 0.2833403522009024 1.6355039941351113 255 255 255
0.1095272715058496 -0.1808658582062318 1.6651836844057977 255 255 255
-0.0644986169994726 0.1071099865222308 1.6409606394799687 255 255 255
-0.2954325142919340 0.0714194546573292 2.2431584357163104 255 255 255
-0.1399413883644701 -0.0367587071917924 1.7017995824287964 255 255 255
-0.0644986169994726 0.1071099865222308 1.6409606394799687 255 255 255
0.0665296182137969 0.0653112118403741 1.5997760707102537 255 255 255
0.1526994810462308 0.3008860920070705 1.6403802028659209 255 255 255
-0.1894046621119537 0.0720029304115583 1.7503746303243100 255 255 255
0.1447176090029192 0.0989163879931610 1.6058813758539852 255 255 255
0.0162387551750727 0.2903674942546569 1.6593209228237429 255 255 255
-0.3400097775048787 -0.0235244001256362 2.1904271034817300 255 255 255
-0.0724445428556732 0.0096719005347746 1.6329224526257324 255 255 255
-0.3200366114355708 -0.0127348353627735 2.1785768649523440 255 255 255
-0.0707503816059257 0.0099965871703318 1.6354788581663797 255 255 255
-0.0979968048718999 0.0032216124407909 1.6518682079778997 255 255 255
-0.3354742533534180 -0.0013891544874011 2.1974325421421388 255 255 255
0.0466787671604220 0.0700878290294666 1.6005150463705649 255 255 255
0.0466787671604220 0.0700878290294666 1.6005150463705649 255 255 255
0.0317750902896427 0.2075074592884381 1.6257791665599626 255 255 255
-0.0038415893458362 0.0583913509881132 1.6115928344284687 255 255 255
-0.0383882527523814 0.0492226845776613 1.6225258247354957 255 255 255
-0.0383882527523814 0.0492226845776613 1.6225258247354957 255 255 255
-0.0083016020460555 0.0879889715983323 1.6182315084563779 255 255 255
-0.0075444854573731 0.1035158506778448 1.6179337533836065 255 255 255
-0.0986352798843692 0.0665901907941949 1.6557997477811079 255 255 255
0.1696655963983158 0.2825779012048728 1.6398707644624355 255 255 255
-0.2986924882372731 -0.0599191225477426 1.8190433532372359 255 255 255
0.3187286357429597 0.4195028892602078 1.7179786622171775 255 255 255
-0.0568240359286459 -0.0507444580153855 1.6333432825328267 255 255 255
-0.0315144885893129 0.1473234052883746 1.6346299526666379 255 255 255
-0.0422799710420369 0.0266880599599691 1.6249589133892632 255 255 255
-0.0659304990482171 0.0620218471042664 1.6373946461278097 255 255 255
-0.0773754473202488 -0.0374897798739184 1.6409859531868978 255 255 255
0.4445145750591022 -0.6180129460042728 2.1114253932977940 255 255 255
-0.0570685219542907 -0.0506371604916286 1.6339815010152710 255 255 255
-0.0818883773025644 0.1305252410135085 1.6551524196390910 255 255 255
-0.0659304990482171 0.0620218471042664 1.6373946461278097 255 255 255
-0.0315144885893129 0.1473234052883746 1.6346299526666379 255 255 255
-0.6857100054549548 -0.4015282644788888 2.2747624059335534 255 255 255
0.1336826563316107 0.2285593514037846 1.6262572424235977 255 255 255
-0.6872046066205484 -0.4017850447104353 2.2699968588285619 255 255 255
-0.8844741637327665 -0.3185018335973157 2.5969567047965527 255 255 255
0.1473069378802735 0.2565189182538500 1.6238365151706493 255 255 255
0.0829652304536090 0.2626118897972785 1.6393011175174972 255 255 255
